ply
format ascii 1.0
element vertex 400
property float x
property float y
property float z
property float intensity
end_header
16.811 -35.909 -37.448 180.901
2.276 -33.157 -23.741 169.120
22.441 1.292 -32.635 223.733
26.125 -26.541 -24.268 199.584
0.560 -17.977 -11.903 182.584
-23.976 1.745 -46.468 177.770
31.414 7.720 -10.253 239.133
-34.781 -40.989 20.515 124.231
31.618 3.997 -45.585 235.615
21.115 -35.224 40.621 185.892
19.259 1.641 -31.362 220.900
-45.849 -19.180 8.316 134.971
32.107 -49.605 3.572 182.502
30.518 24.836 -11.543 255.354
-35.088 -47.366 -44.899 117.546
28.164 12.646 -38.482 240.810
-25.004 27.243 -21.039 202.239
14.815 -35.635 -45.550 179.179
10.456 1.591 -44.921 212.047
-7.963 20.658 12.846 212.695
-28.155 -48.675 -13.484 123.170
-23.256 -43.134 21.817 133.610
-42.906 -3.591 -48.797 153.504
29.781 -6.082 1.350 223.699
-0.040 -49.105 32.884 150.855
-48.710 -49.693 -43.623 101.597
15.414 -46.546 41.351 168.868
42.897 -3.881 -12.467 239.016
11.661 -45.556 -12.723 166.105
-35.812 -6.305 29.229 157.883
3.237 -9.930 -20.263 193.306
40.726 8.674 23.511 249.400
-48.059 38.168 45.768 190.109
-16.717 21.070 -33.764 204.353
-39.686 -4.785 -16.675 155.529
27.611 -35.145 -36.531 192.466
-28.434 9.166 1.284 180.732
48.702 26.622 17.204 275.324
21.495 -21.053 5.206 200.442
48.983 15.083 -47.578 264.066
-15.459 42.906 -47.286 227.447
-28.025 -23.456 -46.152 148.519
-28.388 9.234 -7.779 180.846
-40.627 49.348 -37.861 208.722
-39.391 -17.869 -17.616 142.740
25.115 32.583 -49.096 257.698
-45.792 34.050 39.589 188.258
-26.193 42.622 34.529 216.429
-22.055 4.534 13.448 182.479
12.533 -30.769 -20.274 181.764
-31.695 -47.042 -26.915 121.263
43.346 48.743 28.164 292.089
-36.478 38.340 -31.329 201.862
-20.523 5.999 5.621 185.476
21.248 -37.807 9.818 183.441
-10.855 38.093 -5.509 227.237
-15.180 46.380 -3.635 231.200
4.302 44.774 31.034 249.076
-37.168 -39.267 -49.716 123.566
-31.815 44.030 22.010 212.216
-9.600 9.079 -9.997 199.480
-37.505 41.069 46.390 203.564
39.055 -32.737 -16.612 206.318
4.220 11.593 44.243 215.813
32.233 24.732 -21.949 256.965
-16.032 2.559 30.429 186.528
-25.289 38.800 16.442 213.511
-31.044 -22.287 -27.149 146.669
33.362 14.003 -41.816 247.364
-7.949 30.514 38.009 222.565
27.879 45.337 44.310 273.216
-3.339 39.076 46.919 235.737
-34.382 8.753 -28.876 174.371
13.428 0.090 20.829 213.518
-38.897 30.600 -15.213 191.703
2.121 22.068 -29.957 224.190
2.983 28.864 8.174 231.847
-30.145 43.474 -44.770 213.330
-44.432 -28.556 -18.633 127.013
-32.848 -20.867 -22.934 146.285
38.206 -2.997 -13.251 235.210
-4.621 26.341 16.257 221.720
49.934 -14.427 35.655 235.506
-18.868 -31.650 43.806 149.482
9.305 11.283 -11.290 220.589
45.612 -42.147 -2.888 203.465
38.064 -18.760 41.934 219.305
38.141 39.068 -48.350 277.209
-20.165 8.024 -48.138 187.860
39.080 -8.907 17.632 230.172
15.552 48.466 -20.380 264.019
44.058 25.221 -46.913 269.279
-15.920 15.724 -45.741 199.804
18.530 2.188 -13.504 220.718
-15.612 -28.149 10.514 156.239
14.368 10.550 -17.809 224.917
16.520 -40.044 -36.409 176.476
34.255 -20.913 47.893 213.342
-14.868 -49.935 7.935 135.197
-14.901 -34.456 -31.683 150.643
14.395 -39.146 44.480 175.249
-31.977 15.579 -30.116 183.602
14.187 15.247 36.062 229.434
-14.377 11.532 -7.871 197.155
-7.147 -30.466 29.053 162.387
5.439 3.753 17.217 209.192
-8.863 15.468 47.474 206.604
19.671 -27.440 -18.864 192.231
4.041 31.298 19.379 235.338
-18.273 8.926 25.156 190.653
-4.848 48.981 0.181 244.133
35.943 -45.864 -8.666 190.078
-7.984 -33.635 6.272 158.380
-9.370 -49.819 45.303 140.810
-3.871 -19.103 -1.576 177.026
21.463 -8.598 -40.447 212.864
-31.160 29.693 -3.688 198.533
40.718 43.963 0.076 284.680
-29.158 44.723 38.295 215.566
13.344 13.982 34.282 227.326
0.505 -17.540 -43.679 182.965
-39.094 40.471 12.551 201.377
41.948 6.910 -34.601 248.858
-12.281 -36.577 -12.611 151.142
-39.054 -49.493 15.287 111.453
-47.828 -26.458 41.663 125.714
32.713 32.578 -10.104 265.291
9.826 -37.114 29.233 172.712
-21.155 4.434 -44.982 183.279
-49.895 15.101 -40.588 165.206
3.039 28.672 2.382 231.711
21.990 40.124 17.721 262.114
38.982 -14.776 -9.575 224.205
35.873 29.515 34.492 265.387
44.154 31.122 16.270 275.276
-41.077 29.772 43.456 188.695
34.789 -31.330 21.182 203.459
46.632 30.631 31.404 277.263
-5.614 40.679 -30.426 235.065
-22.913 32.061 -13.963 209.148
7.533 41.843 41.809 249.376
-44.013 34.680 -15.249 190.667
35.006 -11.044 -39.617 223.962
47.566 -36.810 38.318 210.756
1.238 46.840 -46.936 248.077
5.404 15.672 -18.235 221.076
-37.036 -30.079 24.662 132.885
-38.437 -34.684 -3.570 126.878
-11.770 6.407 48.041 194.638
20.978 -22.396 49.445 198.582
-1.853 11.894 3.163 210.042
-45.612 -21.660 37.671 132.728
42.683 38.167 46.442 280.850
-18.482 -26.083 -9.183 155.435
33.073 37.223 -44.519 270.296
32.863 -4.606 33.791 228.257
28.341 38.982 -24.992 267.323
37.809 -35.876 12.140 201.932
11.375 -4.029 26.527 207.346
-4.621 17.756 -21.728 213.135
-13.290 -35.972 -38.648 150.739
-39.062 -0.581 1.295 160.356
-14.844 -3.151 18.500 182.005
-34.608 12.721 27.504 178.113
-14.677 31.445 46.005 216.768
-16.155 -21.510 -21.907 162.335
-9.050 5.367 -38.987 196.317
-35.750 42.638 -11.378 206.887
24.437 10.338 -2.229 234.776
41.023 -6.987 32.369 234.036
-38.856 -2.696 -29.589 158.448
18.169 44.808 -40.112 262.977
-20.535 22.135 -12.196 201.600
4.185 -2.292 48.545 201.893
-34.709 12.948 -23.739 178.239
-2.497 2.486 -17.322 199.989
16.135 -22.470 -32.519 193.665
-1.566 -45.571 -37.611 152.864
-32.741 -27.539 -28.609 139.720
22.730 -13.500 39.080 209.230
-46.475 -5.867 -46.163 147.657
36.131 -45.752 -34.583 190.380
7.094 17.154 36.637 224.247
36.117 -45.620 6.354 190.497
40.289 36.764 -42.340 277.053
-37.531 48.959 -20.311 211.428
-37.639 -23.066 -42.147 139.295
-34.907 -25.112 -34.517 139.981
14.888 12.710 -7.125 227.598
-41.979 0.910 22.347 158.932
38.498 6.735 -14.365 245.233
-1.276 0.661 -46.425 199.385
44.708 -20.841 8.700 223.867
-39.156 40.410 35.332 201.254
-3.959 30.018 -26.851 226.059
11.127 8.146 -32.335 219.272
-45.270 -45.210 -26.498 109.520
41.701 10.369 -40.433 252.071
31.228 38.432 -30.755 269.660
38.354 -28.756 -8.462 209.597
22.543 -0.928 -33.757 221.615
-35.710 47.619 -2.355 211.909
-29.280 -8.435 -13.896 162.284
-45.915 -32.239 19.800 121.846
20.989 -48.483 -13.476 172.506
-27.479 19.052 -5.130 191.572
42.334 -46.239 -45.436 196.095
-24.790 -46.708 -3.880 128.501
-1.155 46.796 46.366 245.641
-23.932 17.496 12.229 193.564
34.330 -43.646 -42.084 190.684
-32.838 -11.699 -8.663 155.463
19.089 -18.249 32.399 200.839
25.504 -9.593 -33.419 215.911
31.561 -49.355 37.029 182.206
3.702 -29.287 8.852 174.415
23.042 8.707 -30.620 231.750
24.374 46.020 -32.518 270.395
-13.026 -2.667 -4.219 184.307
20.123 15.445 -49.177 235.568
1.279 44.651 24.069 245.931
23.875 -30.245 -38.593 193.629
11.884 3.827 13.215 215.711
45.187 3.432 -12.699 248.618
12.471 -33.170 13.354 179.301
37.983 -6.351 -47.354 231.632
9.091 45.143 26.084 254.234
-12.486 3.026 -41.211 190.539
-7.152 -40.044 -39.666 152.804
40.433 30.188 40.969 270.621
45.557 48.966 16.306 294.523
31.576 -25.776 -4.244 205.801
-7.488 -42.314 30.891 150.199
25.622 41.818 16.886 267.441
45.637 27.856 -44.725 273.493
32.079 -38.097 29.191 193.983
4.129 -1.009 -46.316 203.120
-6.866 -38.968 20.302 154.166
-25.261 -36.234 -8.374 138.505
15.280 -18.974 -40.201 196.306
-48.927 21.451 23.639 172.524
22.247 49.630 4.466 271.877
20.995 30.895 42.605 251.890
-32.402 -4.529 -14.038 163.069
-28.244 33.469 -46.675 205.224
-40.802 -8.124 25.170 151.075
-46.487 10.769 48.052 164.283
-18.857 -13.695 -18.804 167.447
37.284 2.422 37.934 239.707
46.003 6.837 -39.542 252.841
-45.870 27.232 26.660 181.363
21.092 24.549 -29.632 245.641
43.246 -26.610 28.226 216.637
0.809 -38.916 -18.991 161.893
36.586 -13.469 -46.480 223.116
17.722 -28.621 -22.436 189.101
16.978 -34.459 21.889 182.519
16.455 11.766 20.257 228.222
-38.254 19.930 -14.854 181.677
-7.557 34.962 -2.793 227.405
16.532 24.992 -25.943 241.524
32.147 -36.532 18.239 195.614
9.302 0.664 -41.080 209.966
32.957 -34.048 -31.514 198.909
46.944 2.704 -0.315 249.648
17.044 -5.443 49.774 211.601
-22.324 -30.438 -18.956 147.238
10.370 -20.974 -8.704 189.396
-11.431 -12.325 -34.534 176.244
-43.597 9.345 -45.381 165.748
35.222 0.803 -11.572 236.025
-18.982 34.277 -13.908 215.295
-43.049 -45.561 -26.937 111.390
-14.718 -41.580 20.714 143.702
-31.356 34.021 49.589 202.665
3.403 19.511 -40.938 222.914
-29.428 -5.297 -24.627 165.274
-14.628 -35.233 15.400 150.139
-33.836 -43.838 -4.034 122.326
32.761 -6.422 25.793 226.339
2.773 2.899 41.319 205.672
-45.699 47.735 15.148 202.036
30.058 15.926 18.427 245.984
-36.406 10.092 -9.882 173.686
26.711 42.395 -38.858 269.106
10.330 -8.274 -4.995 202.056
-8.293 35.166 18.164 226.873
-43.596 35.831 -35.357 192.235
29.245 -0.150 -13.964 229.095
23.028 -35.145 28.115 187.883
40.126 -25.810 10.862 214.316
-2.729 32.509 5.521 229.779
29.396 -35.657 36.285 193.738
-15.559 23.345 -46.415 207.786
-9.365 -43.022 34.610 147.614
35.256 8.661 -27.628 243.917
4.258 5.834 14.436 210.092
-49.039 -8.946 8.412 142.015
-42.372 -3.631 17.068 153.997
26.676 -24.944 -2.114 201.732
-20.888 -42.970 1.071 136.142
40.312 -26.532 -14.098 213.780
29.256 -20.560 -40.114 208.697
5.621 30.934 -22.617 236.555
8.720 -42.734 -38.179 165.986
14.579 15.768 28.853 230.348
-19.968 43.990 41.188 224.022
-36.336 -31.230 9.021 132.434
-36.321 39.165 33.136 202.844
-47.550 -10.358 -13.860 142.092
38.453 -47.281 39.287 191.172
-11.601 -44.671 16.315 143.728
2.513 0.323 33.511 202.837
-1.292 -44.001 -20.779 154.707
-37.513 48.637 24.900 211.123
-12.947 -7.759 -16.212 179.294
-3.409 -6.951 30.601 189.640
38.215 -3.356 -18.934 234.859
6.697 -34.552 38.260 172.146
42.051 26.633 -15.697 268.684
2.766 26.806 39.798 229.572
23.746 17.168 28.215 240.914
-11.904 -29.679 -48.062 158.417
-4.494 -37.934 -34.555 157.572
45.342 31.324 37.990 276.667
11.968 -48.823 -29.866 163.145
34.121 26.626 -3.075 260.746
-0.651 5.859 46.593 205.207
5.539 -49.762 6.076 155.778
8.221 31.702 39.881 239.923
28.055 10.463 23.690 238.517
-0.792 45.942 -20.807 245.150
-10.578 -11.259 -18.532 178.163
46.685 48.957 -28.080 295.642
-18.150 -48.915 -19.017 132.935
15.156 42.872 15.319 258.028
-6.924 44.730 -35.729 237.805
18.127 -42.070 -49.992 176.057
37.378 -46.583 -29.052 190.795
43.206 -31.794 16.930 211.412
-27.861 29.875 -11.381 202.014
-37.943 17.451 1.603 179.509
-8.245 -3.866 35.382 187.890
8.798 -27.454 12.436 181.343
38.665 37.435 27.669 276.101
-24.995 -32.501 4.773 142.503
15.610 40.384 -42.634 255.994
40.756 -34.855 36.972 205.901
25.610 -40.072 2.533 185.538
23.682 11.830 42.525 235.512
-41.755 -3.783 -29.465 154.462
14.539 24.546 -30.918 239.085
33.301 -30.207 -16.366 203.093
29.380 -26.600 -3.262 202.780
29.937 34.278 22.184 264.215
1.834 29.462 -29.506 231.296
-27.661 12.373 35.919 184.712
16.174 -22.404 -22.178 193.770
9.564 -18.617 14.730 190.947
1.647 -13.553 7.523 188.094
49.071 18.073 34.304 267.144
42.858 0.553 26.329 243.410
-8.099 -25.874 -37.111 166.028
8.587 -8.296 47.706 200.291
-28.860 36.230 16.984 207.369
10.628 -39.181 -19.133 171.447
-35.212 -26.225 -19.534 138.564
-17.962 1.343 49.457 183.381
-43.394 -7.929 -31.379 148.677
42.713 -45.025 -6.837 197.687
4.352 -18.346 33.345 186.006
26.110 30.309 5.327 256.420
12.434 37.080 -16.274 249.513
45.855 -40.067 5.335 205.788
-42.395 13.752 -29.331 171.357
38.213 -4.965 -8.634 233.248
10.839 48.936 -29.436 259.775
-16.137 -13.142 -37.328 170.721
-22.943 17.033 -33.270 194.090
34.848 36.252 -41.518 271.099
7.708 -0.811 -30.848 206.897
19.726 -45.765 -39.950 173.962
-35.639 -4.971 -44.080 159.390
-38.343 48.194 -26.261 209.851
47.141 -31.067 -36.158 216.075
25.131 -25.567 37.591 199.564
28.787 -31.607 47.036 197.180
27.254 -18.126 -43.962 209.129
-27.401 -29.511 44.795 143.088
20.673 -0.947 -36.723 219.726
-11.403 27.586 -49.172 216.183
-24.756 -11.853 10.744 163.390
-13.817 -12.121 9.516 174.062
-39.381 23.852 -49.995 184.472
-14.554 -0.818 -49.258 184.628
46.825 -13.279 -32.075 233.546
48.830 1.926 -7.401 250.756
-20.861 -43.940 17.859 135.199
-38.554 30.454 -32.685 191.900
-36.886 -2.873 33.746 160.241
